2177334.75,257539.14,668.96
2177336.77,257544.28,681.78
2177335.30,257542.06,668.79
2177335.89,257545.07,669.45
2177336.38,257547.92,668.79
2177336.96,257550.87,668.79
2177337.55,257553.82,668.96
2177341.40,257552.01,669.12
2177340.91,257548.90,669.91
2177341.56,257547.67,680.80
2177340.29,257545.75,669.58
2177341.60,257545.64,686.31
2177339.84,257542.97,670.70
2177339.22,257539.92,670.14
2177339.86,257538.80,680.57
2177338.66,257537.01,670.07
2177339.78,257536.63,684.34
2177338.08,257534.06,669.68
2177339.62,257534.40,687.79
2177337.66,257531.37,670.60
2177337.17,257528.59,670.96
2177337.98,257527.82,682.67
2177336.55,257525.64,670.27
2177336.13,257522.95,671.35
2177337.04,257522.29,684.02
2177338.98,257525.65,684.57
2177337.48,257523.40,671.75
2177337.87,257526.02,670.17
2177341.02,257532.91,692.61
2177338.35,257528.84,669.32
2177341.11,257535.14,688.51
2177338.94,257531.85,669.58
2177339.53,257534.83,669.94
2177340.08,257537.71,669.74
2177340.64,257540.66,669.65
2177341.12,257543.48,669.06
2177341.71,257546.39,669.22
2177342.23,257549.31,668.99
2177342.82,257552.29,669.45
2177347.32,257553.03,668.99
2177346.80,257550.18,669.19
2177346.31,257547.40,669.97
2177345.69,257544.39,669.28
2177345.11,257541.44,668.89
2177344.55,257538.49,668.63
2177344.00,257535.61,668.76
2177345.14,257535.27,683.72
2177343.51,257532.79,669.38
2177342.60,257527.25,670.99
2177344.41,257527.96,691.43
2177343.42,257526.43,682.83
2177342.05,257524.27,670.70
2177345.42,257527.13,689.66
2177343.19,257523.74,670.53
2177345.81,257529.75,688.05
2177343.75,257526.65,670.37
2177344.20,257529.37,669.42
2177346.29,257534.63,682.67
2177344.72,257532.29,669.15
2177346.71,257537.35,681.42
2177345.21,257535.14,668.53
2177347.53,257540.69,683.62
2177345.76,257538.02,668.33
2177347.14,257544.27,670.50
2177347.86,257547.48,672.07
2177348.08,257549.91,668.99
2177348.66,257552.85,669.19
2177352.85,257551.66,669.78
2177352.20,257548.62,668.79
2177351.68,257545.74,668.96
2177351.06,257542.76,668.50
2177350.87,257540.40,671.65
2177351.78,257539.67,684.28
2177350.38,257537.58,672.07
2177349.46,257534.04,668.60
2177349.48,257532.04,673.71
2177350.52,257531.57,687.69
2177349.39,257529.81,677.78
2177348.56,257528.54,670.63
2177347.97,257525.59,670.30
2177347.38,257522.58,669.71
2177349.66,257523.84,680.60
2177350.04,257526.49,678.96
2177348.98,257524.83,669.58
2177349.53,257527.74,669.48
2177350.52,257531.34,673.25
2177352.77,257536.87,688.25
2177350.57,257533.54,668.99
2177351.46,257536.98,671.91
2177352.05,257539.93,671.84
2177354.80,257546.20,691.37
2177352.24,257542.32,668.73
2177352.89,257545.40,669.51
2177354.00,257551.23,669.51
2177358.43,257551.08,669.02
2177357.91,257548.27,669.38
2177357.35,257545.35,669.32
2177359.20,257546.02,690.09
2177357.20,257543.06,672.80
2177358.24,257542.55,686.84
2177356.24,257539.46,669.09
2177357.99,257540.06,689.27
2177355.59,257536.44,668.27
2177355.04,257533.53,668.40
2177356.88,257534.23,689.10
2177354.65,257530.84,669.68
2177354.10,257527.93,669.71
2177353.02,257522.13,669.74
2177355.58,257522.56,683.00
2177354.57,257523.13,669.51
2177355.33,257526.34,670.96
2177355.78,257529.13,670.01
2177356.33,257532.01,669.84
2177356.72,257534.69,668.46
2177359.08,257540.41,684.25
2177357.24,257537.61,668.24
2177357.93,257540.72,669.19
2177358.42,257543.57,668.69
2177361.37,257550.10,689.72
2177359.50,257547.30,673.22
2177361.72,257552.66,687.76
2177360.15,257552.41,669.25
2177364.57,257552.14,669.15
2177366.15,257552.35,687.49
2177364.02,257549.16,668.79
2177363.53,257546.34,669.38
2177361.77,257537.43,668.37
2177362.38,257536.25,678.31
2177361.22,257534.49,668.14
2177362.03,257533.69,680.28
2177360.76,257531.77,669.15
2177361.74,257531.17,682.44
2177360.27,257528.92,669.48
2177359.69,257525.94,669.19
2177359.20,257523.15,669.78
2177360.18,257522.62,683.13
2177361.47,257523.33,681.36
2177360.65,257524.06,669.22
2177362.91,257529.61,684.05
2177361.24,257527.07,669.55
2177361.76,257529.95,669.12
2177362.31,257532.87,669.09
2177362.90,257535.85,669.38
2177363.92,257539.45,673.39
2177364.08,257541.74,669.61
2177364.70,257544.82,670.33
2177365.28,257547.77,670.56
2177366.70,257551.99,678.34
2177370.62,257553.10,668.83
2177368.96,257544.25,668.66
2177368.34,257541.27,668.14
2177367.72,257538.26,667.38
2177367.20,257535.41,667.61
2177368.61,257535.46,684.67
2177366.71,257532.59,668.20
2177368.15,257532.74,685.69
2177366.12,257529.61,667.84
2177365.70,257526.86,668.92
2177366.88,257526.62,683.88
2177365.18,257524.04,669.22
2177367.36,257525.37,692.97
2177368.60,257524.37,693.10
2177368.75,257526.67,689.59
2177366.45,257523.15,669.45
2177366.94,257525.93,668.96
2177369.66,257532.20,687.89
2177367.39,257528.71,667.84
2177369.81,257534.50,684.28
2177367.95,257531.63,667.87
2177368.50,257534.55,667.68
2177368.99,257537.46,667.48
2177369.61,257540.44,667.81
2177370.26,257543.52,668.66
2177373.30,257535.74,667.38
2177372.72,257532.76,667.05
2177373.93,257532.52,682.67
2177372.20,257529.91,667.55
2177373.17,257529.28,680.64
2177371.25,257524.25,668.83
2177372.46,257523.22,669.45
2177374.74,257528.81,684.54
2177373.64,257527.14,675.06
2177373.40,257528.79,667.71
2177373.82,257531.54,666.82
2177374.44,257534.55,667.09
2177379.65,257536.96,667.97
2177379.03,257533.92,667.28
2177378.41,257530.90,666.73
2177377.92,257528.09,667.41
2177377.47,257525.33,668.17
2177377.01,257522.55,668.92
2177378.50,257523.75,668.10
2177379.48,257529.42,666.89
2177380.06,257532.36,666.99
2177385.33,257530.31,678.37
2177383.99,257528.29,666.76
2177384.87,257527.56,679.23
2177383.47,257525.37,666.79
2177382.95,257522.49,667.02
2177384.54,257523.62,666.59
2177386.36,257528.53,677.78
2177385.09,257526.54,666.50
2177385.75,257529.62,667.25
2177389.13,257536.90,692.32
2177386.43,257532.73,668.37
2177387.61,257538.72,669.06
2177388.19,257541.67,669.15
2177456.15,257541.42,664.95
2177460.26,257539.18,664.23
2177465.53,257533.95,664.82
2177470.96,257532.02,664.56
2177472.48,257533.52,664.53
2177478.13,257530.80,664.40
2177489.04,257535.72,664.99
2177493.54,257523.20,664.95
2177494.80,257540.32,664.27
2177492.33,257545.95,664.82
2177491.79,257531.65,665.35
2177490.33,257540.20,664.72
2177483.51,257530.19,664.40
2177481.90,257530.57,664.72
2177473.59,257536.53,665.28
2177471.27,257550.69,664.46
2177395.28,257540.97,668.96
2177393.52,257552.28,668.56
2177392.91,257547.00,669.02
2177393.80,257541.42,669.22
2177394.67,257535.80,669.12
2177393.57,257524.19,667.09
2177391.27,257537.96,668.92
2177390.81,257540.72,669.28
2177389.48,257549.20,668.99
2177388.93,257543.01,669.06
2177389.36,257540.21,669.06
2177390.26,257534.66,668.73
2177390.69,257531.90,668.37
2177389.25,257522.03,666.23
2177388.35,257527.52,667.15
2177387.54,257528.91,678.37
2177387.88,257530.25,667.55
2177386.77,257530.30,689.53
2177387.42,257532.98,668.14
2177386.99,257535.74,668.50
2177385.48,257536.41,668.43
2177385.95,257533.65,668.04
2177386.38,257530.86,667.61
2177386.20,257525.61,687.59
2177386.85,257528.19,666.86
2177384.47,257523.85,666.99
2177384.08,257526.75,666.53
2177383.61,257529.47,666.96
2177383.15,257532.20,667.68
2177382.68,257535.00,667.81
2177381.78,257540.48,668.76
2177381.35,257543.28,668.79
2177380.18,257538.07,679.23
2177380.49,257539.45,668.33
2177380.68,257535.54,677.26
2177380.99,257536.69,667.87
2177381.42,257533.96,667.55
2177381.86,257531.20,667.35
2177382.29,257528.47,666.73
2177382.72,257525.68,666.76
2177379.69,257524.20,667.78
2177379.26,257527.02,667.61
2177378.82,257529.88,667.32
2177378.39,257532.71,666.89
2177377.58,257533.96,679.19
2177377.93,257535.50,667.19
2177377.50,257538.23,667.78
2177377.03,257540.96,668.43
2177374.74,257541.37,683.13
2177375.22,257543.24,668.56
2177375.65,257540.48,668.17
2177376.54,257534.99,667.22
2177377.01,257532.23,666.96
2177376.93,257527.37,683.43
2177377.41,257529.31,668.01
2177377.81,257526.51,668.10
2177377.93,257522.38,678.90
2177378.27,257523.65,668.43
2177374.91,257522.50,678.31
2177375.22,257523.78,668.01
2177374.75,257526.38,669.28
2177374.36,257529.34,668.10
2177373.48,257530.39,682.01
2177373.99,257532.29,666.89
2177373.05,257533.22,681.95
2177373.49,257534.99,667.64
2177373.06,257537.85,667.58
2177372.05,257538.32,685.92
2177372.60,257540.61,667.91
2177372.16,257543.37,668.37
2177371.70,257546.13,668.79
2177371.24,257548.92,668.86
2177370.22,257546.11,668.73
2177370.69,257543.38,668.24
2177370.57,257538.30,686.02
2177371.12,257540.62,667.81
2177371.59,257537.86,667.55
2177371.47,257532.84,685.23
2177372.02,257535.10,667.28
2177372.45,257532.31,667.38
2177372.64,257528.47,675.55
2177372.70,257524.33,686.51
2177373.14,257526.00,672.73
2177373.74,257523.80,668.07
2177370.56,257523.89,668.83
2177370.16,257526.75,668.07
2177369.32,257528.24,679.09
2177369.70,257529.71,667.15
2177368.86,257530.83,680.54
2177369.27,257532.44,667.87
2177368.08,257532.22,691.69
2177368.84,257535.23,667.74
2177367.82,257535.77,685.69
2177368.40,257538.12,667.05
2177367.94,257540.88,667.45
2177367.47,257543.58,668.40
2177365.27,257552.85,683.46
2177364.21,257551.68,676.80
2177365.28,257547.01,669.42
2177365.61,257543.76,673.19
2177366.18,257541.62,668.01
2177366.64,257538.93,667.19
2177366.49,257533.68,686.25
2177367.07,257536.04,667.51
2177367.06,257531.51,681.46
2177367.50,257533.18,668.07
2177367.93,257530.38,667.87
2177368.37,257527.59,668.07
2177368.76,257524.73,668.60
2177365.74,257523.84,669.38
2177364.86,257524.93,683.23
2177365.34,257526.77,668.63
2177364.91,257529.59,668.46
2177363.66,257529.21,693.69
2177364.44,257532.32,668.92
2177363.57,257533.38,682.93
2177363.94,257534.89,670.89
2177363.61,257538.07,667.84
2177362.98,257540.24,672.86
2177362.68,257543.63,668.46
2177361.64,257543.80,688.58
2177362.22,257546.32,669.19
2177361.14,257546.43,689.99
2177361.79,257549.12,669.22
2177361.39,257551.97,668.69
2177358.90,257552.88,686.87
2177359.92,257552.45,668.79
2177359.70,257547.07,688.74
2177360.31,257549.59,669.42
2177360.16,257544.24,689.07
2177360.75,257546.83,668.99
2177360.77,257542.27,682.47
2177361.21,257543.94,669.38
2177361.51,257540.65,672.99
2177362.11,257538.51,667.87
2177362.06,257533.89,682.41
2177362.44,257535.29,671.22
2177362.32,257530.41,687.95
2177362.94,257532.73,669.32
2177363.34,257529.90,669.51
2177363.80,257527.18,668.96
2177363.75,257522.48,684.44
2177364.20,257524.35,669.09
2177361.05,257524.61,669.09
2177360.35,257526.32,677.88
2177360.62,257527.44,668.83
2177359.54,257527.78,688.94
2177360.19,257530.20,669.22
2177359.76,257533.12,668.53
2177359.33,257535.95,668.37
2177358.86,257538.74,668.66
2177358.43,257541.57,668.76
2177357.42,257541.91,687.53
2177358.00,257544.30,669.25
2177356.85,257544.27,691.04
2177357.53,257547.06,669.68
2177355.88,257549.47,693.96
2177356.64,257552.64,669.81
2177355.41,257551.21,669.58
2177355.84,257548.52,668.66
2177356.27,257545.69,668.69
2177356.70,257542.87,669.15
2177356.55,257537.65,687.66
2177357.17,257540.04,668.83
2177357.60,257537.34,668.43
2177358.03,257534.52,668.20
2177358.40,257531.56,669.84
2177358.86,257528.80,669.45
2177358.71,257523.78,687.20
2177359.29,257526.01,669.06
2177359.73,257523.18,669.38
2177356.78,257523.77,670.01
2177355.97,257525.12,682.11
2177356.38,257526.69,669.42
2177355.40,257527.42,685.92
2177355.91,257529.42,669.94
2177355.52,257532.25,669.68
2177355.09,257535.20,668.30
2177353.47,257537.88,691.23
2177354.22,257540.76,668.89
2177353.24,257541.49,685.13
2177353.79,257543.55,668.86
2177353.29,257546.38,669.28
2177352.28,257546.72,688.18
2177352.86,257549.14,669.84
2177351.85,257549.51,688.12
2177352.43,257551.96,669.45
2177349.96,257551.10,692.61
2177351.11,257551.42,669.09
2177351.10,257546.60,684.34
2177351.58,257548.69,668.46
2177351.97,257545.67,669.74
2177351.93,257541.04,684.15
2177352.44,257543.01,668.63
2177352.29,257537.92,686.61
2177352.77,257539.89,671.09
2177353.73,257534.66,668.46
2177354.13,257531.64,670.04
2177354.26,257527.70,679.19
2177354.56,257528.87,669.74
2177355.00,257526.11,669.45
2177355.43,257523.25,669.65
2177352.28,257523.81,669.88
2177351.82,257526.67,669.68
2177351.11,257528.42,678.11
2177351.42,257529.50,669.38
2177350.56,257535.21,668.60
2177349.48,257535.39,689.33
2177350.06,257537.68,671.22
2177349.05,257538.28,688.45
2177349.56,257540.28,672.57
2177349.26,257543.60,668.66
2177348.69,257545.93,672.53
2177348.23,257548.69,672.89
2177345.38,257552.69,687.66
2177346.40,257552.39,668.69
2177346.72,257549.07,672.27
2177347.26,257546.67,669.22
2177347.69,257543.97,668.56
2177347.27,257537.74,695.53
2177347.64,257539.18,684.02
2177348.02,257540.72,672.01
2177347.77,257535.21,693.40
2177348.49,257538.02,671.12
2177349.25,257532.08,674.24
2177350.25,257527.01,669.71
2177347.69,257523.66,669.81
2177346.39,257532.20,669.12
2177345.96,257535.06,668.50
2177345.02,257535.93,684.02
2177345.56,257537.92,668.07
2177344.52,257538.39,686.61
2177345.10,257540.65,668.79
2177344.63,257543.41,669.12
2177344.20,257546.24,669.15
2177343.36,257547.36,682.15
2177343.77,257549.03,669.32
2177342.96,257550.48,679.82
2177343.34,257551.82,669.38
2177341.23,257550.57,683.79
2177341.70,257552.50,669.09
2177341.72,257547.84,683.10
2177342.14,257549.67,669.32
2177342.57,257546.84,669.35
2177342.45,257541.76,686.97
2177343.03,257544.18,668.27
2177342.92,257539.13,685.79
2177343.36,257541.06,670.60
2177343.38,257536.53,684.08
2177343.86,257538.50,668.83
2177343.51,257532.50,694.15
2177344.33,257535.70,668.56
2177344.25,257531.01,683.62
2177344.76,257532.88,668.96
2177345.09,257529.82,670.73
2177345.56,257527.13,669.74
2177346.02,257524.33,669.84
2177342.71,257524.30,670.76
2177342.27,257527.09,670.73
2177341.43,257528.28,683.66
2177341.91,257530.08,669.28
2177341.41,257532.88,669.68
2177340.15,257541.36,669.28
2177338.71,257544.72,686.74
2177339.08,257546.22,674.93
2177338.24,257547.38,687.72
2177338.82,257549.83,668.96
2177338.42,257552.63,668.86
2177336.51,257548.12,691.53
2177337.20,257551.13,668.86
2177337.25,257546.77,680.83
2177337.63,257548.34,668.69
2177337.85,257544.66,675.55
2177337.87,257540.20,688.41
2177338.42,257542.42,671.09
2177338.89,257539.73,670.11
2177339.32,257537.03,669.68
2177339.75,257534.17,669.91
2177340.22,257531.44,669.42
2177340.50,257523.76,686.08
2177341.05,257525.69,670.33
2177341.48,257522.90,670.47
2177338.49,257522.73,671.38
2177337.62,257524.02,683.95
2177338.06,257525.63,670.70
2177336.79,257529.71,682.83
2177337.23,257531.28,670.37
2177336.12,257531.52,690.64
2177336.76,257534.17,669.71
2177336.33,257536.90,670.43
2177335.70,257538.87,676.77
2177335.94,257539.85,669.15
2177335.50,257542.75,668.79
2177335.07,257545.54,668.86
2177334.64,257548.33,668.83
2177334.21,257551.16,668.66
2177332.43,257553.67,668.63
2177332.86,257550.88,668.53
2177332.88,257546.48,680.74
2177333.26,257548.08,668.46
2177333.21,257543.26,683.88
2177333.69,257545.23,668.56
2177333.85,257541.29,677.65
2177334.16,257542.43,668.56
2177334.52,257539.51,669.51
2177334.75,257535.93,675.91
2177335.01,257532.38,681.59
2177335.38,257533.89,669.78
2177335.78,257530.96,670.93
2177336.13,257523.51,685.69
2177336.65,257525.41,670.30
2177337.04,257522.52,671.25
2177333.65,257524.78,670.50
2177331.03,257541.74,669.78
2177329.34,257553.14,668.50
2177328.05,257552.17,668.79
2177332.27,257523.81,671.12
2177317.20,257539.78,679.42
2177317.47,257540.99,670.04
2177317.07,257543.85,669.61
2177314.75,257547.84,675.72
2177315.39,257545.83,669.42
2177315.72,257542.81,671.22
2177313.26,257539.75,670.66
2177312.52,257541.40,679.39
2177312.43,257545.44,669.71
2177311.96,257548.13,670.56
2177311.29,257550.07,677.36
2177311.14,257553.95,669.22
2177309.41,257551.83,677.03
2177309.61,257552.68,670.33
2177309.98,257549.59,672.80
2177310.10,257545.66,681.49
2177310.48,257547.16,669.78
2177310.91,257544.27,670.40
2177311.31,257541.44,670.60
2177307.45,257546.01,670.63
2177307.05,257548.90,670.11
2177306.35,257550.78,677.13
2177304.71,257551.39,676.60
2177305.35,257549.44,670.04
2177305.74,257546.39,671.91
2177303.38,257543.00,671.09
2177302.91,257545.56,672.89
2177302.42,257548.19,674.47
2177302.12,257551.44,670.79
2177300.60,257550.57,671.12
2177297.17,257552.35,671.98
2177295.78,257550.42,673.98
2177501.35,257535.92,665.05
2177619.66,257859.26,667.58
2177605.88,257749.53,667.19
2177636.31,257851.02,667.74
2177619.32,257744.84,679.85
2177624.42,257759.72,666.76
2177623.86,257756.83,666.59
2177626.41,257762.09,666.43
2177627.76,257739.70,681.46
2177630.47,257760.84,666.73
2177606.59,257609.31,669.68
2177609.00,257614.43,673.52
2177632.28,257738.67,681.49
2177634.98,257759.78,666.56
2177637.49,257757.82,666.76
2177614.44,257626.75,673.85
2177613.64,257625.68,666.46
2177615.62,257629.53,666.56
2177616.10,257632.31,666.14
2177640.70,257767.04,666.89
2177639.18,257735.55,680.37
2177621.87,257645.12,667.22
2177621.29,257642.17,666.82
2177623.29,257645.66,667.02
2177623.78,257648.51,666.92
2177624.36,257651.46,667.48
2177644.25,257744.72,666.59
2177643.77,257741.90,667.09
2177629.49,257661.75,668.24
2177628.77,257658.67,666.76
2177631.12,257664.32,666.46
2177631.74,257667.34,667.64
2177646.77,257750.31,666.92
2177647.22,257753.13,666.30
2177637.28,257680.37,666.82
2177640.33,257686.58,674.37
2177645.70,257698.18,674.60
2177644.87,257697.23,666.89
2177646.98,257701.94,666.79
2177655.58,257728.99,674.70
2177652.77,257716.74,667.41
2177652.95,257714.68,674.24
2177651.66,257710.91,666.53
2177655.16,257719.18,674.40
2177654.43,257718.34,667.28
2177655.96,257726.92,667.22
2177680.62,257838.64,667.55
2177681.21,257841.52,668.24
2177685.81,257851.88,668.46
2177688.28,257856.02,668.20
2177692.63,257865.00,668.53
2177695.35,257871.31,668.89
2177699.47,257879.18,668.86
2177691.41,257824.36,667.25
2177702.20,257884.00,667.68
2177696.90,257829.22,667.64
2177697.97,257820.55,667.28
2177705.09,257833.64,667.68
2177707.56,257838.60,667.64
2177711.74,257846.53,668.14
2177671.96,257622.97,666.59
2177671.44,257620.05,666.43
2177671.63,257612.40,669.71
2177714.53,257852.68,668.17
2177719.29,257862.64,668.24
2177677.50,257625.34,670.47
2177674.59,257610.44,667.41
2177721.65,257866.45,668.79
2177726.01,257875.14,669.12
2177728.82,257881.44,669.12
2177729.31,257884.26,668.69
2177733.31,257890.59,668.92
2177688.37,257636.19,667.78
2177687.85,257633.31,667.91
2177687.59,257630.75,670.20
2177689.07,257633.79,667.68
2177689.59,257636.71,667.74
2177695.09,257649.29,667.91
2177694.60,257646.44,668.27
2177686.80,257596.77,665.74
2177696.83,257652.09,667.97
2177724.80,257809.39,667.22
2177702.74,257665.58,668.14
2177690.27,257595.88,665.64
2177691.31,257595.18,665.68
2177704.95,257670.68,668.07
2177710.57,257684.24,668.20
2177710.08,257681.36,668.33
2177694.55,257594.46,665.68
2177695.56,257594.12,665.87
2177712.20,257686.79,668.07
2177712.72,257689.67,668.17
2177717.97,257700.02,668.43
2177719.97,257703.15,668.40
2177720.49,257705.97,668.43
2177726.32,257720.78,668.53
2177725.76,257717.86,668.33
2177725.24,257714.98,668.14
2177703.27,257590.56,665.81
2177698.13,257561.48,665.54
2177699.67,257564.58,665.41
2177727.60,257720.96,668.40
2177728.09,257723.81,668.30
2177733.62,257736.06,668.60
2177733.13,257733.24,668.73
2177707.55,257588.65,665.51
2177706.06,257579.97,665.54
2177705.57,257577.09,665.81
2177707.72,257582.22,665.77
2177708.70,257588.05,665.54
2177736.07,257741.09,668.43
2177740.93,257751.41,668.73
2177713.40,257589.02,679.36
2177707.28,257560.73,665.74
2177708.61,257562.62,665.68
2177743.14,257756.25,668.96
2177746.78,257758.80,667.15
2177714.86,257577.13,665.74
2177714.37,257574.24,665.77
2177716.83,257580.78,665.77
2177751.16,257740.94,682.70
2177752.56,257756.42,667.35
2177766.91,257790.93,667.84
2177764.51,257750.23,667.41
2177735.22,257575.65,665.58
2177775.63,257786.34,667.97
2177777.37,257786.72,667.84
2177744.27,257571.59,665.68
2177774.92,257744.84,667.45
2177761.05,257638.89,681.00
2177747.73,257570.04,665.68
2177761.76,257635.30,681.00
2177762.29,257638.19,680.90
2177762.77,257641.07,680.90
2177782.57,257741.81,667.71
2177766.57,257643.03,681.10
2177765.52,257637.20,680.44
2177765.07,257634.45,680.96
2177752.31,257568.49,665.68
2177766.86,257635.94,680.90
2177787.48,257740.35,667.91
2177777.43,257675.97,680.83
2177776.87,257673.02,680.28
2177776.38,257670.17,680.37
2177770.95,257638.59,681.10
2177770.40,257635.68,680.74
2177769.94,257632.86,681.10
2177771.98,257636.65,680.96
2177777.97,257670.98,680.24
2177778.49,257673.89,680.31
2177779.01,257676.77,680.34
2177780.05,257682.57,681.06
2177785.00,257691.68,680.96
2177784.02,257685.95,681.10
2177783.50,257683.06,680.83
2177782.43,257677.27,680.31
2177781.97,257674.42,680.57
2177784.76,257680.92,680.74
2177785.25,257683.77,680.57
2177786.29,257689.53,680.93
2177787.33,257695.33,681.26
2177787.85,257698.21,681.46
2177788.47,257701.16,682.41
2177792.02,257701.98,681.29
2177791.01,257696.18,681.06
2177790.43,257693.23,680.44
2177789.97,257690.42,680.64
2177791.41,257690.17,681.06
2177792.91,257698.79,681.06
2177793.43,257701.67,681.23
2177794.47,257707.40,681.39
2177795.48,257713.10,681.59
2177796.03,257716.02,681.95
2177799.14,257714.77,681.78
2177798.59,257711.86,681.16
2177797.58,257706.09,681.03
2177770.89,257559.64,665.77
2177772.10,257559.14,665.68
2177799.11,257705.65,680.60
2177800.81,257714.39,681.98
2177802.70,257732.65,666.99
2177806.27,257732.19,667.94
2177803.73,257710.82,681.46
2177802.72,257705.09,681.19
2177776.84,257557.19,665.64
2177805.42,257712.38,681.52
2177807.50,257730.83,668.07
2177781.55,257555.01,665.61
2177812.24,257728.69,668.01
2177785.14,257553.30,665.74
2177786.35,257553.52,665.68
2177816.98,257727.13,667.87
2177819.55,257741.48,668.37
2177822.58,257758.64,668.60
2177826.87,257764.93,668.24
2177826.38,257762.12,668.17
2177825.93,257759.27,668.69
2177827.86,257758.85,692.02
2177825.41,257756.38,668.33
2177789.58,257551.12,665.68
2177790.92,257550.94,665.77
2177821.62,257724.72,667.87
2177827.73,257759.12,668.63
2177828.25,257762.00,668.86
2177830.60,257766.64,686.57
2177828.74,257764.85,668.63
2177829.23,257767.73,668.73
2177830.01,257720.28,668.10
2177838.43,257759.11,668.73
2177834.85,257718.59,668.01
2177843.34,257757.55,668.66
2177844.84,257714.16,668.20
2177846.38,257713.35,667.64
2177850.01,257712.30,668.24
2177822.65,257553.75,670.37
2177822.13,257550.80,670.27
2177824.83,257558.94,670.47
2177851.51,257711.79,668.20
2177856.77,257709.25,668.24
2177859.97,257634.43,681.62
2177844.65,257551.69,670.24
2177846.30,257553.19,670.40
2177853.70,257570.70,670.33
2177853.17,257567.72,670.20
2177855.91,257575.21,670.33
2177863.19,257710.99,667.68
2177861.90,257696.53,680.83
2177858.94,257713.07,667.74
2177857.58,257714.10,667.94
2177850.49,257701.57,681.00
2177847.51,257718.17,667.81
2177841.76,257721.37,667.87
2177830.85,257772.25,668.76
2177830.22,257775.04,668.83
2177829.64,257772.62,668.76
2177830.24,257767.30,680.74
2177830.20,257769.69,669.09
2177840.45,257721.42,667.64
2177843.44,257704.75,680.96
2177839.00,257706.83,681.03
2177835.98,257723.43,667.74
2177826.32,257768.65,668.37
2177825.13,257774.30,668.56
2177860.15,257586.32,671.55
2177824.19,257755.58,668.46
2177855.52,257599.04,679.75
2177859.14,257583.74,670.60
2177856.63,257578.45,670.40
2177827.82,257711.37,681.13
2177824.83,257728.17,667.35
2177818.78,257756.32,668.30
2177823.24,257729.76,667.94
2177855.87,257574.65,670.33
2177813.80,257751.02,668.33
2177852.32,257567.79,670.11
2177849.78,257562.73,670.24
2177809.72,257745.81,667.84
2177812.10,257734.46,667.58
2177848.76,257559.76,670.37
2177806.38,257716.60,681.85
2177802.20,257739.09,667.61
2177802.80,257709.55,681.00
2177802.20,257712.25,681.72
2177801.64,257715.08,681.52
2177801.01,257717.67,682.57
2177796.83,257740.46,667.19
2177795.28,257742.24,667.58
2177800.61,257714.00,681.59
2177801.20,257711.24,681.23
2177801.80,257708.41,681.33
2177832.47,257564.68,669.97
2177797.56,257710.75,681.33
2177794.55,257724.83,681.52
2177796.75,257708.92,681.03
2177827.32,257564.30,675.95
2177794.05,257704.55,681.49
2177793.49,257707.38,681.36
2177792.86,257710.21,681.49
2177784.56,257746.58,667.41
2177792.86,257704.14,681.56
2177793.46,257701.37,681.16
2177824.07,257557.57,670.83
2177791.13,257694.54,680.83
2177790.56,257697.24,681.42
2177789.97,257700.03,681.59
2177789.37,257702.89,681.29
2177780.43,257748.00,667.12
2177779.20,257749.00,667.48
2177788.70,257700.90,681.33
2177789.29,257698.10,681.33
2177789.89,257695.37,680.93
2177787.45,257690.67,680.90
2177786.85,257693.47,680.83
2177774.13,257750.85,667.48
2177785.98,257691.51,680.74
2177786.58,257688.68,680.87
2177784.18,257682.43,680.74
2177783.59,257685.23,680.80
2177783.03,257688.06,680.87
2177768.42,257754.65,667.35
2177782.09,257686.72,681.06
2177782.69,257683.99,680.54
2177783.29,257681.16,680.67
2177811.48,257549.43,666.56
2177807.61,257552.35,667.02
2177780.87,257676.03,680.41
2177780.31,257678.80,680.57
2177779.71,257681.53,680.96
2177779.13,257678.61,680.57
2177779.72,257675.85,680.37
2177780.32,257673.02,680.34
2177806.13,257552.40,666.89
2177802.40,257553.78,666.46
2177800.90,257554.42,666.59
2177797.47,257556.19,666.46
2177743.93,257809.69,667.58
2177728.03,257881.06,669.09
2177773.93,257641.45,681.29
2177749.04,257762.46,666.92
2177747.78,257763.78,667.12
2177751.32,257743.89,680.87
2177772.56,257642.28,681.33
2177773.16,257639.49,681.26
2177790.83,257558.26,665.68
2177771.04,257634.19,680.57
2177770.44,257636.86,681.26
2177769.25,257642.55,680.74
2177768.69,257645.24,681.29
2177744.19,257759.85,667.28
2177767.16,257646.87,681.03
2177767.76,257644.04,681.29
2177768.32,257641.28,681.13
2177782.11,257562.35,665.61
2177765.47,257638.22,680.57
2177764.87,257640.98,680.77
2177764.28,257643.71,681.29
2177763.68,257646.41,681.88
2177742.34,257747.82,681.13
2177741.77,257753.24,668.07
2177763.12,257643.23,681.29
2177777.09,257565.19,666.37
2177738.63,257747.63,668.30
2177715.84,257856.04,668.53
2177761.15,257632.88,680.67
2177775.87,257565.43,665.81
2177757.61,257633.21,681.39
2177717.63,257821.47,667.58
2177732.18,257735.94,668.46
2177709.39,257844.49,667.55
2177700.93,257884.41,669.15
2177713.03,257823.85,667.48
2177762.29,257571.97,666.43
2177698.01,257877.61,668.40
2177728.79,257725.64,668.99
2177760.97,257571.58,665.58
2177726.67,257720.25,668.73
2177703.39,257831.46,667.91
2177694.96,257871.54,668.69
2177725.72,257719.99,668.37
2177756.14,257574.26,665.84
2177723.30,257714.80,668.40
2177722.59,257712.51,668.40
2177720.25,257708.07,668.33
2177694.62,257830.66,667.51
2177694.02,257833.42,668.01
2177693.39,257836.05,668.86
2177692.73,257835.47,668.86
2177693.33,257832.84,667.78
2177693.96,257829.91,667.64
2177719.55,257706.47,668.46
2177746.33,257577.96,665.77
2177691.10,257826.72,667.32
2177685.71,257852.47,667.48
2177684.92,257852.25,668.37
2177690.34,257826.24,667.28
2177716.50,257699.94,668.30
2177737.65,257582.84,666.07
2177682.57,257846.04,667.25
2177713.72,257691.50,668.17
2177736.40,257582.26,666.40
2177711.45,257686.99,668.24
2177710.36,257686.54,668.14
2177731.28,257585.86,666.07
2177708.33,257680.56,668.20
2177707.56,257678.60,668.76
2177726.70,257586.53,665.61
2177704.70,257672.29,667.87
2177701.65,257665.37,667.94
2177718.37,257584.61,665.54
2177699.69,257659.61,669.94
2177698.63,257658.80,669.94
2177712.51,257592.21,665.51
2177715.36,257578.24,665.81
2177713.12,257574.42,665.41
2177710.24,257588.36,665.77
2177709.43,257586.11,665.61
2177712.28,257572.20,665.61
2177710.21,257568.21,665.71
2177707.29,257582.22,665.54
2177693.98,257646.08,669.19
2177693.20,257643.86,669.88
2177702.94,257596.93,665.51
2177706.39,257580.20,665.54
2177709.23,257566.22,665.81
2177707.31,257560.79,665.54
2177699.26,257599.86,666.04
2177703.46,257573.43,665.54
2177706.31,257559.56,665.51
2177694.59,257602.00,665.84
2177687.17,257631.51,668.10
2177700.22,257567.62,665.64
2177703.07,257553.78,665.09
2177684.70,257627.17,670.11
2177683.71,257626.66,669.94
2177688.29,257604.86,666.04
2177697.33,257560.37,665.28
2177695.00,257556.78,665.38
2177680.19,257629.22,667.71
2177658.98,257733.85,666.73
2177657.96,257734.18,666.86
2177658.56,257731.39,666.73
2177694.25,257554.33,665.28
2177680.24,257607.86,666.27
2177675.67,257630.28,666.50
2177648.75,257758.43,666.69
2177655.55,257722.66,674.60
2177678.20,257610.67,670.11
2177678.84,257608.49,666.27
2177674.41,257615.20,667.81
2177647.10,257750.96,666.79
2177645.35,257759.58,666.63
2177642.47,257773.78,666.79
2177641.91,257776.61,666.96
2177641.21,257775.53,666.76
2177644.06,257761.16,666.73
2177648.65,257738.31,666.69
2177671.79,257622.35,666.50
2177672.85,257616.23,669.55
2177650.45,257710.70,674.90
2177644.80,257740.52,666.86
2177640.20,257763.24,667.28
2177639.34,257762.59,666.79
2177643.31,257742.56,666.73
2177650.13,257708.17,667.68
2177640.20,257739.94,680.08
2177635.04,257765.06,666.82
2177638.91,257742.31,680.51
2177639.48,257739.62,679.75
2177647.51,257702.29,666.56
2177631.63,257765.62,666.69
2177630.55,257766.22,666.59
2177643.97,257696.26,674.67
2177642.28,257691.06,667.02
2177627.69,257764.97,666.56
2177630.43,257743.68,680.77
2177641.74,257689.55,666.27
2177639.00,257684.98,674.11
2177626.68,257745.88,681.00
2177624.55,257760.08,666.82
2177621.94,257748.06,680.08
2177621.47,257753.48,666.79
2177633.29,257671.23,666.82
2177616.31,257753.27,666.63
2177632.15,257669.37,674.53
2177630.09,257663.22,674.53
2177627.14,257656.75,674.14
2177626.51,257655.61,666.99
2177603.75,257757.26,666.33
2177602.61,257757.77,665.97
2177623.02,257648.46,674.37
2177620.12,257640.28,674.17
2177614.65,257627.87,674.04
2177608.17,257613.23,673.25
2177607.21,257612.06,667.61
2177604.05,257604.51,666.20
2177601.67,257599.21,666.33
2177865.57,257705.78,668.56
2177876.11,257700.49,668.63
2177881.41,257698.54,668.53
2177871.84,257633.79,669.48
2177881.54,257688.56,669.97
2177881.99,257691.38,669.45
2177894.62,257740.67,669.32
2177868.24,257588.34,670.73
2177900.70,257731.26,669.35
2177901.19,257734.11,669.38
2177901.67,257736.96,669.22
2177944.61,257890.83,671.75
2177944.09,257887.98,671.71
2177897.09,257607.98,672.57
2177949.68,257892.58,699.90
2177946.97,257890.77,671.42
2177923.17,257734.25,670.01
2177924.69,257731.81,669.94
2177925.67,257737.48,669.71
2177926.22,257740.36,670.14
2177932.80,257755.55,670.76
2177932.25,257752.64,670.43
2177930.19,257730.21,669.97
2177935.82,257761.69,670.66
2177960.01,257888.18,692.12
2177958.02,257886.86,671.29
2177963.50,257886.84,691.79
2177961.55,257885.51,671.52
2177943.68,257783.21,671.32
2177943.15,257780.32,671.29
2177942.67,257777.51,671.29
2177934.05,257728.83,669.91
2177945.54,257782.76,671.29
2177946.06,257785.61,671.38
2177946.58,257788.46,671.45
2177963.16,257882.15,671.65
2177952.99,257802.47,671.65
2177952.50,257799.59,671.58
2177939.39,257725.26,669.97
2177919.20,257598.21,672.76
2177956.50,257809.04,671.61
2177956.99,257811.89,671.75
2177961.06,257812.76,672.20
2177952.88,257721.32,670.63
2177968.71,257809.83,672.14
2177936.00,257591.51,672.60
2177958.22,257717.79,670.17
2177962.01,257716.15,670.11
2177940.12,257589.90,672.70
2177963.78,257715.77,670.24
2177953.89,257634.52,671.02
2177941.46,257562.52,672.86
2177940.97,257559.63,672.96
2177942.70,257561.42,672.47
2177943.22,257564.37,672.66
2177943.74,257567.25,672.63
2177944.26,257570.17,672.66
2177951.09,257584.08,672.83
2177964.63,257651.84,672.96
2177970.37,257649.16,672.40
2177970.89,257652.04,672.47
2177957.60,257552.38,672.93
2177963.19,257549.96,672.53
2177964.66,257549.29,672.66
2177967.93,257816.96,672.04
2177960.77,257819.23,671.94
2177957.60,257813.82,671.81
2177957.30,257810.31,672.24
2177953.78,257806.14,671.71
2177953.13,257803.42,671.84
2177966.72,257720.66,670.86
2177950.15,257797.12,671.52
2177946.53,257789.38,671.32
2177945.85,257787.32,671.32
2177959.34,257724.41,671.02
2177954.66,257726.39,670.24
2177943.02,257780.03,671.35
2177953.52,257726.67,670.53
2177969.16,257652.94,672.27
2177939.59,257771.93,671.16
2177938.54,257771.25,671.25
2177958.62,257658.76,670.96
2177934.94,257762.98,670.96
2177941.69,257731.44,671.61
2177953.22,257659.43,670.66
2177932.47,257755.33,670.70
2177969.76,257550.69,673.03
2177925.43,257739.74,670.04
2177963.66,257554.62,672.14
2177959.93,257555.02,672.80
2177936.43,257664.42,669.97
2177948.96,257580.98,672.86
2177946.01,257570.77,672.57
2177908.45,257745.33,669.81
2177907.26,257750.85,670.66
2177906.52,257748.82,670.63
2177907.11,257746.16,669.81
2177944.84,257568.68,672.73
2177942.07,257564.45,673.09
2177903.92,257741.83,669.38
2177913.14,257674.83,669.81
2177903.61,257713.25,669.38
2177911.45,257676.45,670.04
2177928.15,257597.33,673.62
2177905.89,257678.34,669.97
2177901.57,257679.93,669.84
2177900.97,257682.69,670.04
2177896.11,257682.05,669.91
2177880.33,257755.32,670.20
2177890.20,257684.80,669.78
2177885.76,257700.00,668.40
2177888.76,257685.67,669.28
2177884.65,257687.38,669.55
2177883.45,257692.97,669.81
2177882.46,257691.63,670.11
2177883.05,257688.84,669.84
2177899.73,257609.85,672.73
2177878.53,257689.34,681.23
2177875.57,257705.81,668.24
2177870.28,257707.70,667.81
2177864.31,257711.17,668.07
2177875.10,257588.47,670.93
2177690.69,257546.26,664.89
2177691.35,257543.33,665.09
2177692.43,257549.19,665.12
2177699.87,257544.92,665.09
2177701.95,257549.99,665.22
2177799.74,257546.69,666.40
2177804.61,257544.93,666.56
2177814.51,257539.98,666.43
2177813.34,257547.80,666.43
2177700.11,257546.43,665.12
2177692.20,257549.29,664.99
2177974.09,257806.40,672.34
2177985.63,257871.62,671.75
2177989.13,257870.08,671.81
2177977.79,257804.82,672.96
2177979.75,257804.38,672.50
2177985.54,257802.58,672.50
2177994.68,257797.96,672.63
2177978.94,257709.22,670.47
2177996.81,257797.68,672.43
2177976.93,257654.70,670.30
2178002.10,257795.00,672.70
2178017.51,257859.36,671.94
2178017.02,257856.54,671.98
2178011.48,257790.54,672.53
2177995.83,257701.90,671.35
2177988.13,257649.21,670.43
2177997.43,257701.00,671.16
2178013.34,257789.57,672.73
2177994.11,257647.35,670.86
2178019.29,257787.58,672.63
2178006.90,257696.31,671.42
2177999.61,257645.26,670.86
2178036.32,257850.61,672.01
2178003.66,257643.28,670.76
2178005.15,257642.09,670.99
2178015.26,257694.82,679.46
2178030.36,257782.45,672.83
2178041.48,257844.88,672.37
2178018.07,257691.11,672.37
2178015.89,257679.49,671.12
2178010.81,257640.13,670.96
2178017.51,257677.53,671.35
2178033.97,257769.12,672.83
2178034.53,257772.00,673.09
2178035.99,257780.49,672.60
2178050.99,257843.51,672.34
2178050.46,257840.63,672.20
2178025.32,257687.37,672.04
2178038.14,257758.88,672.89
2178041.68,257778.76,672.50
2178029.36,257687.16,672.50
2178020.05,257635.21,670.79
2178008.20,257558.12,673.35
2178043.59,257756.33,672.96
2178034.36,257671.59,671.42
2178064.01,257837.08,672.14
2178056.62,257773.30,672.50
2178043.49,257699.03,672.50
2178043.00,257696.22,672.73
2178040.43,257681.84,672.43
2178038.83,257673.09,671.35
2178040.99,257675.14,671.84
2178046.23,257703.90,672.80
2178046.71,257706.75,672.86
2178047.23,257709.60,672.76
2178072.68,257831.05,672.04
2178071.68,257825.39,672.17
2178053.67,257722.95,672.83
2178043.97,257668.45,672.07
2178036.78,257628.06,671.02
2178024.09,257555.83,671.68
2178026.29,257559.97,670.73
2178056.33,257726.73,672.70
2178056.82,257729.58,672.50
2178060.39,257749.53,672.93
2178064.01,257747.17,672.96
2178063.49,257744.32,672.89
2178062.97,257741.43,672.63
2178049.21,257664.06,671.81
2178033.98,257577.61,672.43
2178036.50,257583.63,672.43
2178050.85,257664.18,671.12
2178048.03,257623.84,671.78
2178044.06,257600.88,672.70
2178046.43,257604.70,671.94
2178046.95,257607.54,671.78
2178049.48,257621.93,671.35
2178054.69,257617.71,671.78
2178094.48,257818.70,671.98
2178096.64,257818.02,671.91
2178105.45,257813.14,671.88
2178080.05,257659.56,672.24
2178112.27,257805.79,671.75
2178108.68,257754.17,671.84
2178099.61,257680.07,672.20
2178101.76,257682.18,672.40
2178123.71,257804.59,671.48
2178090.92,257590.80,672.34
2178095.34,257590.00,672.66
2178096.43,257587.92,672.43
2178099.85,257594.98,700.35
2178096.95,257590.81,672.27
2178138.34,257800.54,671.45
2178137.85,257797.66,671.06
2178142.39,257802.34,695.50
2178141.04,257801.08,681.06
2178140.17,257800.23,671.75
2178144.13,257801.80,670.79
2178114.24,257633.30,672.73
2178146.19,257801.58,670.76
2178124.26,257657.64,672.24
2178152.36,257805.03,671.38
2178152.88,257807.88,671.45
2178156.66,257807.68,671.78
2178133.80,257679.37,672.57
2178136.72,257686.00,672.43
2178158.31,257805.53,671.98
2178163.25,257813.72,672.01
2178162.76,257810.90,672.20
2178142.95,257699.72,672.30
2178136.81,257665.36,672.60
2178136.29,257662.48,672.43
2178134.69,257653.80,672.14
2178139.59,257671.80,672.57
2178156.10,257741.96,671.98
2178155.62,257739.08,671.98
2178145.92,257684.83,672.17
2178148.54,257690.25,672.20
2178149.09,257693.13,672.40
2178157.29,257738.66,671.84
2178157.81,257741.55,671.91
2178162.19,257746.39,671.75
2178161.67,257743.51,671.65
2178161.24,257740.73,672.37
2178160.69,257737.84,672.17
2178147.91,257659.67,687.56
2178144.92,257649.20,673.09
2178146.22,257648.30,672.24
2178149.31,257658.91,687.69
2178157.61,257711.20,672.40
2178163.26,257742.45,672.07
2178164.24,257748.11,671.78
2178164.76,257750.90,671.61
2178171.28,257766.81,671.61
2178170.31,257761.15,671.94
2178164.19,257726.95,672.14
2178152.87,257657.36,687.20
2178149.85,257646.82,672.34
2178151.32,257646.19,672.30
2178154.38,257656.79,687.46
2178167.35,257734.76,671.98
2178167.87,257737.61,671.88
2178173.57,257768.92,671.68
2178174.05,257771.74,671.58
2178186.14,257819.56,672.40
2178179.48,257782.61,671.61
2178173.36,257748.58,671.84
2178172.91,257745.76,672.27
2178157.59,257653.70,687.66
2178156.39,257644.27,672.20
2178159.51,257654.90,687.69
2178176.10,257752.82,671.88
2178176.62,257755.70,671.98
2178182.76,257789.74,671.48
2178183.25,257792.59,671.38
2178193.01,257827.37,672.11
2178188.88,257804.64,671.45
2178182.28,257767.62,671.88
2178162.83,257652.50,687.62
2178185.10,257773.73,671.38
2178185.65,257776.58,671.58
2178191.31,257807.76,671.55
2178191.83,257810.65,671.75
2178199.10,257832.23,671.94
2178198.58,257829.38,671.98
2178197.02,257820.80,671.58
2178191.42,257789.58,671.81
2178190.90,257786.73,671.81
2178194.29,257794.18,672.43
2178194.75,257796.97,671.81
2178200.44,257828.15,671.71
2178200.99,257831.00,671.84
2178204.55,257832.64,672.04
2178200.45,257809.91,671.88
2178199.93,257807.02,671.65
2178169.65,257638.65,672.14
2178203.23,257814.90,672.07
2178208.88,257846.08,671.84
2178213.75,257854.27,671.94
2178209.17,257828.75,672.11
2178208.65,257825.90,672.04
2178177.30,257645.37,687.89
2178212.00,257833.19,672.30
2178212.52,257836.04,672.11
2178221.95,257869.91,672.20
2178217.89,257847.24,672.27
2178182.37,257643.91,687.40
2178179.31,257633.21,672.24
2178221.10,257853.57,672.30
2178225.19,257876.18,672.20
2178187.34,257641.99,687.76
2178184.25,257631.26,672.34
2178227.04,257857.22,672.57
2178190.25,257627.36,672.27
2178193.41,257638.09,687.85
2178197.08,257637.60,686.31
2178194.05,257627.03,671.94
2178195.16,257626.06,672.17
2178198.31,257636.80,687.82
2178200.09,257623.91,672.20
2178203.41,257621.49,672.07
2178204.80,257622.16,672.14
2178219.52,257651.02,678.18
2178214.03,257616.36,672.07
2178221.43,257654.39,677.45
2178227.71,257669.65,676.63
2178214.17,257597.10,671.88
2178215.86,257598.72,671.75
2178219.01,257615.98,671.55
2178225.20,257648.11,675.32
2178224.54,257617.21,672.70
2178225.36,257620.45,675.45
2178225.81,257623.27,674.80
2178226.40,257626.18,675.16
2178226.88,257629.00,674.90
2178227.44,257631.88,675.09
2178227.96,257634.76,674.99
2178224.75,257878.12,672.34
2178227.26,257862.51,672.17
2178221.28,257871.72,672.30
2178216.97,257863.79,672.20
2178213.36,257857.65,672.01
2178215.77,257845.92,672.14
2178210.09,257851.98,671.81
2178209.26,257831.18,671.91
2178206.85,257842.66,672.01
2178205.73,257838.89,693.40
2178205.78,257843.85,672.20
2178206.34,257840.86,672.53
2178208.78,257829.35,671.84
2178205.67,257823.67,671.88
2178202.67,257837.94,672.14
2178201.56,257839.07,672.17
2178205.20,257821.64,672.04
2178202.53,257813.92,672.37
2178198.86,257827.64,671.65
2178192.52,257837.15,672.53
2178192.23,257834.34,672.57
2178195.24,257819.97,671.78
2178198.24,257805.46,671.91
2178226.64,257666.84,680.24
2178226.06,257652.08,675.75
2178195.20,257799.85,671.81
2178187.40,257836.91,672.47
2178191.84,257811.43,671.71
2178224.40,257653.60,676.80
2178227.01,257624.76,671.61
2178192.00,257791.19,671.98
2178188.99,257805.49,671.65
2178203.78,257725.08,689.56
2178188.12,257784.01,671.65
2178185.11,257798.38,671.68
2178179.16,257826.62,672.30
2178177.14,257831.43,672.57
2178177.73,257828.54,672.53
2178187.35,257782.54,671.68
2178197.90,257727.66,689.23
2178217.00,257621.58,672.20
2178193.20,257730.50,689.86
2178181.36,257790.96,671.58
2178174.15,257825.03,672.57
2178180.50,257789.86,671.65
2178215.37,257622.25,672.07
2178187.35,257732.69,689.63
2178180.90,257767.54,671.68
2178177.93,257781.87,671.35
2178168.34,257821.58,672.30
2178179.78,257766.76,671.84
2178209.29,257624.84,673.58
2178177.15,257759.37,671.81
2178176.82,257755.80,671.68
2178203.41,257628.25,672.34
2178197.53,257630.70,672.47
2178169.98,257741.89,671.94
2178169.34,257739.40,671.45
2178191.20,257634.54,672.34
2178187.11,257635.63,672.47
2178166.23,257734.28,672.01
2178163.85,257745.69,671.65
2178163.26,257748.48,671.91
2178162.66,257751.31,671.91
2178161.10,257752.87,672.01
2178161.70,257750.01,672.04
2178162.29,257747.25,671.71
2178185.35,257636.76,672.80
2178181.07,257638.15,672.76
2178162.60,257725.52,672.11
2178156.62,257753.80,672.20
2178145.77,257805.33,670.47
2178179.28,257639.41,673.03
2178174.77,257641.62,673.35
2178155.65,257732.15,671.81
2178140.57,257803.44,670.86
2178139.92,257800.99,694.84
2178140.00,257806.11,671.88
2178139.38,257809.10,671.12
2178138.83,257806.64,671.19
2178158.03,257714.64,672.24
2178168.66,257643.95,672.76
2178154.36,257711.59,671.68
2178162.22,257646.87,672.63
2178160.75,257647.34,672.63
2178154.67,257650.03,672.34
2178149.80,257652.27,672.40
2178134.85,257722.54,672.66
2178148.11,257653.54,672.63
2178139.74,257673.41,672.53
2178141.93,257656.12,673.25
2178124.46,257711.42,672.53
2178134.59,257663.42,672.40
2178120.91,257707.33,672.66
2178080.79,257837.80,672.11
2178110.51,257697.12,672.37
2178105.67,257692.35,672.20
2178069.29,257842.54,672.14
2178068.30,257842.58,672.14
2178117.22,257592.21,672.11
2178097.42,257684.69,672.01
2178055.61,257853.01,672.11
2178103.45,257604.23,672.73
2178102.66,257600.23,672.57
2178098.93,257594.82,691.04
2178099.19,257597.77,672.37
2178098.18,257595.72,702.88
2178098.59,257600.57,672.37
2178097.96,257603.33,672.57
2178097.37,257606.16,672.30
2178083.29,257665.50,700.58
2178083.57,257670.61,672.30
2178066.00,257752.33,672.66
2178043.98,257855.10,672.07
2178064.78,257752.18,672.73
2178065.38,257749.32,672.83
2178082.22,257669.97,672.37
2178096.48,257602.72,672.43
2178097.08,257599.96,672.40
2178094.95,257590.66,672.37
2178062.42,257742.19,672.70
2178059.38,257756.37,672.66
2178053.15,257780.02,672.24
2178058.01,257757.07,672.43
2178058.31,257735.15,672.53
2178051.90,257759.66,672.53
2178087.37,257573.44,671.65
2178054.19,257726.62,678.08
2178046.90,257761.71,672.66
2178024.78,257864.77,671.91
2178066.85,257642.59,672.30
2178050.45,257716.16,684.67
2178050.54,257718.46,672.80
2178040.78,257763.74,672.99
2178035.92,257786.56,672.37
2178017.40,257868.19,671.81
2178034.71,257786.67,672.40
2178053.01,257680.33,672.14
2178046.96,257708.45,672.43
2178034.19,257767.77,672.70
2178033.56,257770.54,673.09
2178032.97,257767.59,672.99
2178058.60,257627.91,671.94
2178023.43,257791.44,672.34
2178004.69,257874.39,671.71
2178022.03,257792.74,672.50
2178045.68,257681.65,672.37
2178042.91,257674.40,671.91
2178040.50,257685.61,671.84
2178039.27,257691.17,672.20
2178015.85,257794.44,672.14
2178038.36,257688.75,672.60
2178040.75,257677.60,671.78
2178053.29,257618.70,671.78
2178011.01,257796.42,672.34
2178009.80,257796.86,672.40
2178032.79,257688.84,672.43
2178049.47,257610.37,672.70
2178027.54,257692.86,677.78
2178026.89,257690.08,672.40
2178039.50,257631.25,671.16
2178045.43,257603.06,672.53
2178034.93,257633.52,671.38
2177998.44,257802.78,672.34
2177980.39,257882.63,671.75
2177997.17,257803.74,672.43
2178019.68,257697.96,673.03
2177992.65,257804.45,672.27
2177991.22,257805.84,672.27
2178022.68,257639.16,671.29
2177986.12,257808.45,672.27
2178008.44,257699.22,671.84
2178011.45,257685.27,671.19
2178021.05,257640.29,671.25
2178016.80,257641.45,670.79
2178004.68,257697.55,671.22
2177980.24,257810.74,672.14
2177979.22,257810.78,672.17
2178001.81,257705.09,671.45
2178006.04,257685.39,671.12
2178034.08,257554.02,670.73
2178027.91,257563.96,671.35
2178010.43,257644.89,671.12
2178009.02,257644.93,670.50
2178004.58,257647.51,670.83
2178003.20,257647.29,670.47
2177984.85,257712.51,671.12
2177983.45,257713.38,671.12
2177992.40,257652.88,670.66
2177977.47,257716.13,671.06
2177990.77,257654.11,670.63
2178006.68,257561.08,673.62
2177986.20,257656.48,670.60
2177984.81,257655.84,670.11
2178005.66,257557.68,673.22
2178003.02,257552.33,673.32
2177980.12,257658.87,670.30
2177979.00,257658.46,670.07
2177977.31,257547.59,672.83
2178232.73,257888.24,672.47
2178233.25,257891.06,672.47
2178234.90,257852.42,672.80
2178239.55,257851.06,672.40
2178243.48,257860.34,672.43
2178248.95,257872.46,672.60
2178251.86,257878.44,672.47
2178257.07,257890.56,672.27
2178228.51,257637.65,675.03
2178229.00,257640.50,674.90
2178229.42,257643.22,673.75
2178239.49,257695.39,679.88
2178244.89,257701.01,672.86
2178252.32,257722.04,673.09
2178251.76,257719.12,672.60
2178254.89,257727.17,671.68
2178255.48,257730.11,672.53
2178256.00,257732.90,671.94
2178257.56,257741.48,672.17
2178258.12,257744.33,672.40
2178263.27,257754.48,672.93
2178266.47,257762.85,673.09
2178266.99,257765.70,673.06
2178272.61,257775.98,673.45
2178272.09,257773.20,673.58
2178271.50,257770.25,672.80
2178251.46,257661.51,671.06
2178248.89,257647.22,671.25
2178248.40,257644.34,671.48
2178247.26,257638.54,671.02
2178251.54,257653.10,671.25
2178252.06,257655.99,671.29
2178252.58,257658.84,671.09
2178253.59,257664.54,670.99
2178254.17,257667.45,671.32
2178275.52,257781.66,674.01
2178281.13,257795.06,673.48
2178280.61,257792.21,673.35
2178259.56,257678.06,671.45
2178251.69,257635.02,671.45
2178255.00,257638.63,689.72
2178261.63,257682.01,671.52
2178262.16,257684.86,671.38
2178283.50,257798.88,673.78
2178284.02,257801.70,673.81
2178289.85,257813.94,674.24
2178289.29,257811.09,673.98
2178268.67,257699.76,671.55
2178268.12,257696.91,671.42
2178258.39,257636.20,689.23
2178259.94,257636.42,689.17
2178271.45,257705.54,671.55
2178292.72,257819.40,673.52
2178293.21,257822.18,673.32
2178298.71,257834.60,673.25
2178298.19,257831.78,673.32
2178277.15,257717.76,671.52
2178276.73,257715.01,672.43
2178263.20,257634.22,689.40
2178264.57,257633.98,689.17
2178279.69,257723.05,671.25
2178280.25,257725.93,671.45
2178301.52,257839.69,673.55
2178302.07,257842.54,673.81
2178307.30,257852.99,674.21
2178287.56,257745.25,675.22
2178287.04,257742.40,675.16
2178284.96,257730.94,675.09
2178267.74,257632.47,686.84
2178256.64,257578.50,671.48
2178257.81,257577.47,671.42
2178259.96,257589.03,671.32
2178269.04,257631.50,687.13
2178288.54,257741.14,674.90
2178289.61,257746.84,675.03
2178290.13,257749.69,675.35
2178310.62,257860.14,674.14
2178300.66,257789.59,673.52
2178300.14,257786.74,673.48
2178299.69,257783.99,674.01
2178298.78,257778.45,675.55
2178266.24,257603.41,671.16
2178268.65,257608.73,671.35
2178269.21,257611.65,671.55
2178271.88,257626.03,671.29
2178295.74,257752.36,675.88
2178300.45,257777.87,675.35
2178302.85,257791.86,673.12
2178303.44,257794.74,673.45
2178316.12,257862.68,673.78
2178319.21,257879.61,672.93
2178319.73,257882.40,673.19
2178324.50,257890.58,673.35
2178321.28,257873.59,672.50
2178309.38,257808.50,673.45
2178308.86,257805.72,673.55
2178298.10,257746.26,675.72
2178296.48,257737.68,675.32
2178277.18,257627.78,687.26
2178275.03,257622.68,671.35
2178269.17,257590.94,671.16
2178268.65,257588.09,671.35
2178271.38,257595.25,671.12
2178278.34,257626.23,686.74
2178300.67,257750.27,676.27
2178305.39,257775.79,675.52
2178312.57,257815.23,673.32
2178313.09,257818.08,673.48
2178314.16,257823.78,673.62
2178314.68,257826.56,673.32
2178321.06,257860.53,673.75
2178323.82,257858.50,673.94
2178320.15,257838.68,673.62
2178319.63,257835.87,673.52
2178317.03,257821.75,673.62
2178308.28,257773.69,675.32
2178277.83,257610.32,671.29
